# .PCD v0.7 - Point Cloud Data file format
VERSION 0.7
FIELDS x y z
SIZE 4 4 4
TYPE F F F
COUNT 1 1 1
WIDTH 1463
HEIGHT 1
VIEWPOINT 0 0 0 1 0 0 0
POINTS 1463
DATA ascii
0.45758954 0.75126892 0.73405522
0.45825478 0.75125098 0.73402292
0.45356366 0.75128871 0.73358947
0.45454434 0.7512179 0.73321122
0.45554218 0.75119096 0.73316276
0.45654005 0.75116408 0.7331143
0.45753795 0.75113714 0.73306584
0.4582032 0.7511192 0.73303354
0.45349485 0.75111306 0.73227036
0.45449275 0.75108612 0.7322219
0.45549059 0.75105923 0.73217344
0.45648846 0.75103235 0.73212498
0.45748633 0.75100541 0.73207653
0.45848423 0.75097853 0.73202807
0.45344326 0.75098133 0.73128098
0.45445833 0.75099832 0.73156226
0.455439 0.75092745 0.73118401
0.45643687 0.75090057 0.73113555
0.45743474 0.75087363 0.73108715
0.45809999 0.75085568 0.73105484
0.45339164 0.75084955 0.7302916
0.45438954 0.75082266 0.73024315
0.45538738 0.75079572 0.73019469
0.45638528 0.75076884 0.73014623
0.4580484 0.75072396 0.73006552
0.45267484 0.7507357 0.72933459
0.45334002 0.75071782 0.72930229
0.45433795 0.75069094 0.72925383
0.4553358 0.75066394 0.72920537
0.45635086 0.75068098 0.72948664
0.45262322 0.75060397 0.72834522
0.45328844 0.75058603 0.72831291
0.45428631 0.75055915 0.72826445
0.45528421 0.75053221 0.72821599
0.45323685 0.75045431 0.72732353
0.45411813 0.75041574 0.72717053
0.45524982 0.75044441 0.72755641
0.45318526 0.75032252 0.72633421
0.45248559 0.75025266 0.72570693
0.45297885 0.74979556 0.72237676
0.45224482 0.74963784 0.7210899
0.45292726 0.74966383 0.72138745
0.45380855 0.74962521 0.72123444
0.45490581 0.74956608 0.72096074
0.45287567 0.74953204 0.72039801
0.45387354 0.74950516 0.72034955
0.45487142 0.74947822 0.72030115
0.4558177 0.74931955 0.71926332
0.45576611 0.74918783 0.71827394
0.45606434 0.74909097 0.71759826
0.45466504 0.7489512 0.7163437
0.45533028 0.74893326 0.7163114
0.45160261 0.74885631 0.71516997
0.45261768 0.74887329 0.71545124
0.45361555 0.74884641 0.71540278
0.45459622 0.74877554 0.71502453
0.45527869 0.74880153 0.71532208
0.45156822 0.74876845 0.71451038
0.45256609 0.74874151 0.71446192
0.45356396 0.74871463 0.71441346
0.45456183 0.74868774 0.71436501
0.45522708 0.74866974 0.7143327
0.45184922 0.74862772 0.71350485
0.45251447 0.74860984 0.7134726
0.45351237 0.7485829 0.71342415
0.45451024 0.74855596 0.71337569
0.45517549 0.74853802 0.71334332
0.45146501 0.74850494 0.71253163
0.45246288 0.74847806 0.71248317
0.45346075 0.74845111 0.71243471
0.45445865 0.74842423 0.71238625
0.4551239 0.74840629 0.712354
0.45153004 0.74838483 0.71164685
0.45241129 0.74834633 0.71149385
0.45340917 0.74831933 0.71144539
0.45440704 0.74829245 0.71139693
0.45507228 0.74827456 0.71136457
0.45235968 0.74821454 0.71050447
0.45335758 0.7481876 0.71045601
0.45435545 0.74816072 0.71040756
0.4550207 0.74814278 0.71037525
0.45142683 0.74812132 0.70966816
0.45230809 0.74808282 0.70951515
0.45330596 0.74805588 0.7094667
0.45430386 0.74802893 0.70941824
0.45496911 0.74801105 0.70938593
0.45092598 0.74798697 0.70859033
0.4522565 0.74795103 0.70852578
0.453587 0.74791515 0.70846117
0.45425224 0.74789721 0.70842886
0.45491749 0.74787927 0.70839655
0.45118982 0.74780226 0.70725507
0.45218769 0.74777538 0.70720661
0.45320278 0.74779236 0.70748794
0.45420066 0.74776542 0.70743948
0.4548659 0.74774754 0.70740718
0.45015755 0.74774134 0.706644
0.45115542 0.74771446 0.70659554
0.4521533 0.74768752 0.70654708
0.45315117 0.74766064 0.70649862
0.45414907 0.7476337 0.70645016
0.45514694 0.74760681 0.70640171
0.45010597 0.74760962 0.70565462
0.45110384 0.74758273 0.7056061
0.45210171 0.74755579 0.70555764
0.45309958 0.74752885 0.70550919
0.45409745 0.74750191 0.70546079
0.4547627 0.74748397 0.70542848
0.4493891 0.74749577 0.70469761
0.45005435 0.74747783 0.70466524
0.45105222 0.74745095 0.70461679
0.45205012 0.74742401 0.70456833
0.45304799 0.74739712 0.70451987
0.45404586 0.74737024 0.70447141
0.45504373 0.7473433 0.70442295
0.44911003 0.7473554 0.70360905
0.45000276 0.7473461 0.70367593
0.45100063 0.74731922 0.70362747
0.4520157 0.74733621 0.70390874
0.45268095 0.74731827 0.70387644
0.45401147 0.74728239 0.70381182
0.45534196 0.74724644 0.70374727
0.44895327 0.74724126 0.70273501
0.44995117 0.74721432 0.70268655
0.45061642 0.74719644 0.70265424
0.44858626 0.7471624 0.70209157
0.40775475 0.73903251 0.63530529
0.40975052 0.73897868 0.63520837
0.41041577 0.73896068 0.635176
0.41141364 0.7389338 0.63512754
0.41241154 0.73890686 0.63507909
0.41340941 0.73887992 0.63503063
0.41440728 0.73885304 0.63498217
0.41540512 0.7388261 0.63493371
0.43170378 0.73838657 0.63414228
0.40747571 0.73889208 0.63421673
0.40836841 0.73888272 0.6342836
0.40936628 0.73885584 0.63423514
0.41036418 0.73882896 0.63418669
0.41125688 0.73881966 0.6342535
0.41235992 0.73877513 0.63408977
0.41335779 0.73874819 0.63404131
0.41437289 0.73876518 0.63432264
0.43165219 0.73825479 0.6331529
0.40632105 0.73880482 0.63339114
0.40731895 0.73877794 0.63334268
0.40831682 0.73875099 0.63329428
0.41031256 0.73869723 0.63319737
0.41230834 0.73864335 0.63310045
0.43093535 0.73814094 0.63219589
0.40558702 0.7386471 0.63210434
0.40626946 0.73867309 0.63240176
0.40716219 0.73866385 0.63246864
0.40828243 0.7386632 0.63263464
0.43020129 0.73798323 0.63090903
0.43090093 0.73805314 0.6315363
0.40522 0.73856825 0.63146091
0.40621787 0.73854131 0.63141245
0.4301669 0.73789543 0.63024944
0.40327778 0.7384727 0.63045317
0.40417051 0.7384634 0.63052005
0.40506327 0.73845416 0.63058686
0.43011528 0.7377637 0.62926012
0.40212318 0.7383855 0.62962759
0.40312105 0.73835862 0.62957913
0.40411893 0.73833162 0.62953061
0.43006369 0.73763192 0.62827075
0.40142354 0.73831558 0.62900031
0.40207157 0.73825371 0.62863821
0.40306947 0.73822683 0.62858975
0.42934686 0.73751807 0.62731367
0.4300293 0.73754406 0.62761116
0.40201998 0.73812199 0.62764889
0.40301788 0.7380951 0.62760043
0.42929524 0.73738635 0.6263243
0.3733454 0.73871785 0.62771887
0.37401065 0.73869991 0.62768656
0.37513086 0.73869932 0.62785256
0.37602362 0.73869002 0.62791938
0.37702149 0.73866308 0.62787092
0.37801936 0.73863614 0.62782246
0.37890062 0.73859763 0.62766945
0.40308285 0.73797494 0.6267156
0.40396413 0.73793644 0.62656254
0.42901617 0.73724598 0.6252358
0.375972 0.73855823 0.62693006
0.3769699 0.73853135 0.6268816
0.37796777 0.73850441 0.62683314
0.37896562 0.73847753 0.62678468
0.40291467 0.73783159 0.62562168
0.40391251 0.73780465 0.62557322
0.42786154 0.73715872 0.62441021
0.42919207 0.73712283 0.6243456
0.37525517 0.73844445 0.62597299
0.37592041 0.73842645 0.62594068
0.37691829 0.73839957 0.62589222
0.37791616 0.73837268 0.62584376
0.37891403 0.73834574 0.6257953
0.40286306 0.73769981 0.6246323
0.40386093 0.73767292 0.62458384
0.42479911 0.73706383 0.62323648
0.42581421 0.73708081 0.62351781
0.4266955 0.73704225 0.62336481
0.42780995 0.73702699 0.62342089
0.42880782 0.73700011 0.62337244
0.37520355 0.73831272 0.62498361
0.37586883 0.73829472 0.6249513
0.3768667 0.73826784 0.6249029
0.37786457 0.73824096 0.62485445
0.37886241 0.73821402 0.62480599
0.40314409 0.73755908 0.62362677
0.42376685 0.73700291 0.62262535
0.4244321 0.73698497 0.62259305
0.42709312 0.73691314 0.62246382
0.42775837 0.7368952 0.62243152
0.42842361 0.73687732 0.62239921
0.37583441 0.73820692 0.62429178
0.37683231 0.73817998 0.62424326
0.37783018 0.7381531 0.6241948
0.37849542 0.73813516 0.62416255
0.40310967 0.73747128 0.62296724
0.40377492 0.73745328 0.62293488
0.42273456 0.73694199 0.62201422
0.45582852 0.75293988 0.73871756
0.45682985 0.75291288 0.73866892
0.4578312 0.75288588 0.73862028
0.45883253 0.75285888 0.73857164
0.45479268 0.75287879 0.73810434
0.45612779 0.75284278 0.73803943
0.45779669 0.75279778 0.73795837
0.45879802 0.75277078 0.73790979
0.45946559 0.75275278 0.73787737
0.45609328 0.75275463 0.73737758
0.4578619 0.75267726 0.73707056
0.45876351 0.75268263 0.73724794
0.45943108 0.75266463 0.73721552
0.45931026 0.75235611 0.73489898
0.45925847 0.75222391 0.73390621
0.4592067 0.75209177 0.73291343
0.45252556 0.75053507 0.72029889
0.45280758 0.75039381 0.7192899
0.45380887 0.75036681 0.7192412
0.45481023 0.75033987 0.71919262
0.45275578 0.7502616 0.71829706
0.45375714 0.7502346 0.71824849
0.45475844 0.7502076 0.71819979
0.45270401 0.75012946 0.71730429
0.45370534 0.75010246 0.71725565
0.45470667 0.7500754 0.71720707
0.45570803 0.7500484 0.71715838
0.45265225 0.7499972 0.71631151
0.45365357 0.7499702 0.71626288
0.45432112 0.7499522 0.71623045
0.45228392 0.7499181 0.71566582
0.45495418 0.74984604 0.71553618
0.45137474 0.74931914 0.71106523
0.45134023 0.74923092 0.71040338
0.4520078 0.74921298 0.71037096
0.45060363 0.74907267 0.70911205
0.45127118 0.74905473 0.70907962
0.45056912 0.74898458 0.7084502
0.45190424 0.74894851 0.70838541
0.45323935 0.74891257 0.7083205
0.45051733 0.74885231 0.70745742
0.45120212 0.74887842 0.70775592
0.45220348 0.74885142 0.70770729
0.44902688 0.74849176 0.70454389
0.44899234 0.74840355 0.70388198
0.43261528 0.73931485 0.63367873
0.40563279 0.73989415 0.63388312
0.40652865 0.73988479 0.63395023
0.40721345 0.73991084 0.63424873
0.43258074 0.7392267 0.63301694
0.4054755 0.73977965 0.6330061
0.43184417 0.73906845 0.63172561
0.40373757 0.73964834 0.63176346
0.4044224 0.73967439 0.6320619
0.40531823 0.73966503 0.63212901
0.43110755 0.73891014 0.63043427
0.43180966 0.73898029 0.6310637
0.40336931 0.73956919 0.63111776
0.40437064 0.73954219 0.63106912
0.43107304 0.73882198 0.62977242
0.40029621 0.73947394 0.62993985
0.40142035 0.73947334 0.63010651
0.40231618 0.73946398 0.63017362
0.40300098 0.73949003 0.63047206
0.43102127 0.73868978 0.62877959
0.39926037 0.73941284 0.62932664
0.40026173 0.73938584 0.62927806
0.40126306 0.73935878 0.62922943
0.43096951 0.73855758 0.62778682
0.36814976 0.74007374 0.6295104
0.3761605 0.73985767 0.62912136
0.37716183 0.73983067 0.62907273
0.37816319 0.73980367 0.62902409
0.37916452 0.73977667 0.62897545
0.38016587 0.73974967 0.62892687
0.39954239 0.73927164 0.62831765
0.40020993 0.73925358 0.62828523
0.40109426 0.7392149 0.62813175
0.43023288 0.73839933 0.62649554
0.43091771 0.73842537 0.62679404
0.3674477 0.74000365 0.62888092
0.36811525 0.73998564 0.62884849
0.3691166 0.73995864 0.62879986
0.37011793 0.73993164 0.62875128
0.37111929 0.73990458 0.62870264
0.37212062 0.73987758 0.628654
0.37312198 0.73985058 0.62860537
0.37412328 0.73982358 0.62855673
0.37512463 0.73979658 0.62850815
0.37612599 0.73976958 0.62845945
0.37712735 0.73974258 0.62841088
0.37812865 0.73971552 0.62836224
0.37912998 0.73968852 0.6283136
0.38013133 0.73966151 0.62826502
0.38113266 0.73963451 0.62821633
0.38213402 0.73960751 0.62816775
0.40015817 0.73912138 0.62729245
0.4011595 0.73909438 0.62724388
0.43019837 0.73831117 0.62583363
0.36808074 0.73989743 0.62818664
0.36908206 0.73987043 0.62813807
0.37008339 0.73984349 0.62808937
0.37108475 0.73981643 0.62804079
0.37208608 0.73978949 0.62799209
0.37308744 0.73976249 0.62794352
0.37408876 0.73973548 0.62789488
0.37475634 0.73971742 0.62786245
0.37942925 0.73959136 0.62763554
0.38009682 0.73957342 0.62760311
0.38109815 0.73954642 0.62755448
0.38209951 0.73951936 0.6275059
0.38276705 0.73950142 0.62747347
0.40112495 0.73900628 0.62658197
0.40212631 0.73897928 0.62653333
0.43016386 0.73822308 0.62517178
0.3690303 0.73973829 0.62714523
0.37003165 0.73971123 0.62709659
0.37103298 0.73968422 0.62704796
0.37203431 0.73965722 0.62699938
0.37291864 0.73961854 0.62684578
0.37401971 0.73955917 0.62657118
0.3750211 0.73953217 0.62652254
0.38004506 0.73944116 0.62661034
0.38104638 0.73941416 0.6265617
0.38204774 0.73938715 0.62651306
0.38271528 0.73936915 0.62648064
0.40107322 0.73887402 0.62558919
0.40207452 0.73884702 0.62554055
0.40275937 0.73887306 0.62583905
0.43011209 0.73809081 0.62417901
0.36997989 0.73957908 0.62610382
0.37098119 0.73955208 0.62605518
0.37198254 0.73952508 0.62600654
0.37298387 0.73949802 0.62595791
0.3739852 0.73947102 0.62590933
0.37465277 0.73945296 0.6258769
0.37999326 0.73930895 0.6256175
0.38099462 0.73928195 0.62556893
0.38199595 0.73925495 0.62552035
0.38266352 0.73923695 0.62548786
0.40135521 0.73873281 0.62458014
0.40202275 0.73871481 0.62454778
0.43006033 0.73795861 0.62318623
0.37092942 0.73941982 0.62506235
0.37193075 0.73939282 0.62501377
0.37293211 0.73936582 0.62496519
0.37393343 0.73933882 0.62491649
0.37460101 0.73932081 0.62488413
0.37994149 0.73917675 0.62462479
0.38094282 0.73914975 0.62457609
0.38194418 0.73912275 0.62452751
0.38261172 0.73910475 0.62449509
0.40132067 0.73864472 0.62391829
0.40197098 0.73858261 0.62355494
0.4026213 0.73852056 0.6231916
0.42565212 0.73789942 0.62207323
0.42665347 0.73787236 0.6220246
0.42978024 0.73781776 0.62209392
0.37121144 0.73927861 0.62405342
0.37187898 0.73926061 0.62402093
0.37288031 0.73923361 0.62397236
0.37388167 0.73920661 0.62392372
0.374883 0.73917961 0.62387508
0.37922215 0.73906255 0.62366438
0.3798897 0.73904455 0.62363195
0.38089105 0.73901755 0.62358338
0.38189238 0.73899055 0.62353468
0.42394871 0.73785627 0.62149239
0.42461628 0.73783821 0.62146002
0.42661896 0.73778421 0.62136275
0.42762029 0.73775721 0.62131405
0.43353137 0.74024302 0.63321501
0.40469232 0.74093145 0.6339497
0.40536219 0.74091339 0.63391715
0.40328333 0.74079072 0.63268638
0.40430543 0.74080783 0.63296968
0.43277493 0.74003994 0.63158715
0.4025788 0.74072033 0.63205481
0.40324867 0.74070227 0.63202226
0.40391853 0.74068421 0.63198972
0.43272296 0.73990732 0.63059092
0.39916015 0.74063379 0.63088912
0.40016499 0.74060667 0.63084036
0.40116981 0.74057955 0.63079154
0.40219191 0.74059665 0.63107485
0.40321404 0.74061382 0.63135809
0.43200114 0.7397927 0.62962723
0.39812073 0.74057245 0.63027376
0.39912555 0.74054533 0.63022494
0.40013033 0.74051827 0.63017619
0.40113515 0.74049115 0.63012737
0.4319492 0.73966008 0.628631
0.36355314 0.74132597 0.63062078
0.364223 0.74130791 0.63058823
0.36522782 0.74128079 0.63053942
0.36623263 0.74125373 0.63049066
0.36725473 0.7412709 0.6307739
0.36824223 0.74119955 0.63039303
0.36924705 0.74117243 0.63034421
0.37025183 0.74114537 0.63029546
0.3709217 0.74112731 0.63026291
0.3782903 0.74092853 0.6299051
0.37929508 0.74090141 0.62985629
0.3802999 0.74087435 0.62980747
0.38130468 0.74084723 0.62975872
0.39616504 0.74047625 0.62925905
0.39706397 0.74046689 0.62932634
0.39806879 0.74043977 0.62927759
0.39909089 0.74045688 0.62956083
0.39976075 0.74043882 0.62952828
0.43189722 0.7395274 0.62763476
0.36318356 0.74124664 0.62997288
0.36418837 0.74121952 0.62992406
0.36519316 0.7411924 0.62987524
0.36619797 0.74116528 0.62982643
0.36720279 0.74113816 0.62977773
0.36820757 0.74111104 0.62972891
0.36921239 0.74108398 0.6296801
0.3702172 0.74105692 0.62963128
0.37122199 0.7410298 0.62958252
0.3722268 0.74100268 0.62953371
0.37323162 0.74097562 0.62948489
0.3742364 0.7409485 0.62943608
0.37524122 0.74092138 0.62938732
0.37624604 0.74089426 0.6293385
0.37725082 0.74086714 0.62928975
0.37825564 0.74084014 0.62924099
0.37926042 0.74081302 0.62919217
0.38026527 0.7407859 0.62914336
0.38127008 0.74075878 0.62909454
0.38227484 0.74073166 0.62904578
0.38327965 0.7407046 0.62899697
0.39600721 0.74036133 0.62837887
0.39701203 0.74033421 0.62833005
0.39801681 0.74030709 0.6282813
0.39902163 0.74028003 0.62823254
0.43184528 0.73939472 0.62663859
0.36313161 0.7411139 0.62897664
0.3641364 0.74108678 0.62892783
0.36514121 0.74105966 0.62887901
0.36614603 0.74103266 0.62883025
0.36704496 0.7410233 0.62889755
0.36917773 0.74099553 0.62901592
0.37018254 0.74096841 0.62896711
0.37118739 0.74094129 0.62891835
0.37219217 0.74091429 0.62886953
0.37319699 0.74088717 0.62882072
0.37420177 0.74086004 0.62877196
0.37520659 0.74083292 0.6287232
0.38123542 0.74067032 0.62843037
0.38224024 0.74064326 0.62838155
0.38322771 0.74057192 0.62800074
0.38423252 0.7405448 0.62795192
0.38490239 0.74052674 0.62791944
0.38555494 0.74046445 0.62755477
0.39629018 0.74021965 0.62736642
0.39696005 0.74020153 0.62733388
0.39796486 0.74017441 0.62728506
0.39896968 0.74014735 0.62723625
0.39962223 0.74008507 0.62687171
0.43110615 0.73923594 0.62534279
0.43181062 0.73930627 0.62597436
0.44118884 0.73905331 0.62551898
0.44185871 0.73903531 0.62548643
0.44284621 0.73896396 0.62510562
0.36307964 0.74098128 0.62798041
0.36408445 0.74095416 0.62793159
0.36508927 0.74092704 0.62788284
0.36609405 0.74089992 0.62783402
0.36709887 0.74087286 0.62778521
0.38351071 0.74043024 0.62698829
0.38418058 0.74041218 0.62695575
0.38485044 0.74039406 0.6269232
0.38585526 0.74036694 0.62687439
0.3969081 0.74006885 0.62633765
0.39791289 0.74004179 0.62628883
0.3989177 0.74001467 0.62624007
0.39992252 0.73998755 0.62619126
0.43107149 0.73914742 0.62467861
0.43174136 0.73912936 0.62464607
0.4407846 0.73888546 0.6242069
0.44178942 0.73885834 0.62415814
0.44279423 0.73883128 0.62410933
0.36304501 0.74089283 0.62731624
0.36403251 0.74082154 0.62693536
0.36503729 0.74079442 0.62688661
0.36604211 0.7407673 0.62683779
0.36704689 0.74074018 0.62678903
0.36805171 0.74071306 0.62674022
0.38345873 0.7402975 0.62599206
0.3841286 0.7402795 0.62595946
0.3847985 0.74026144 0.62592697
0.38580328 0.74023432 0.62587816
0.3868081 0.7402072 0.6258294
0.39821318 0.73994428 0.62560844
0.39886576 0.73988199 0.62524384
0.39987054 0.73985493 0.62519503
0.43101954 0.7390148 0.62368238
0.43168941 0.73899674 0.62364984
0.43971053 0.73873574 0.62292743
0.44073266 0.73875284 0.62321073
0.44173747 0.73872572 0.62316191
0.44274229 0.7386986 0.6231131
0.44374707 0.73867148 0.62306434
0.36498535 0.74066168 0.62589031
0.36599013 0.74063462 0.62584162
0.36699495 0.74060756 0.6257928
0.36799976 0.74058044 0.62574399
0.36900455 0.74055332 0.62569517
0.38340679 0.74016488 0.62499577
0.38407665 0.74014682 0.62496322
0.38474652 0.74012876 0.62493074
0.38575134 0.74010164 0.62488192
0.38675615 0.74007457 0.62483311
0.3998186 0.73972225 0.62419885
0.40082341 0.73969519 0.62415004
0.43096757 0.73888212 0.62268621
0.43163744 0.73886406 0.62265366
0.44068071 0.73862016 0.6222145
0.44168553 0.7385931 0.62216568
0.44269031 0.73856598 0.62211692
0.36595553 0.74054617 0.62517738
0.36696032 0.74051905 0.62512863
0.36796513 0.74049199 0.62507981
0.36896995 0.74046493 0.62503099
0.36997473 0.74043781 0.62498218
0.38337213 0.74007642 0.62433165
0.38404199 0.74005842 0.62429911
0.38471189 0.7400403 0.62426656
0.38571668 0.74001318 0.62421781
0.38672149 0.73998612 0.62416899
0.40011892 0.7396248 0.62351835
0.40078878 0.73960668 0.62348586
0.43093297 0.73879367 0.62202197
0.36702579 0.74039817 0.62423766
0.36791319 0.74035931 0.62408358
0.36891797 0.74033219 0.62403482
0.36992279 0.74030507 0.62398601
0.37057531 0.74024284 0.62362134
0.3833375 0.73998803 0.62366748
0.38400736 0.73996991 0.62363493
0.38568208 0.73992473 0.62355363
0.38668686 0.73989767 0.62350488
0.40075412 0.73951823 0.62282175
0.40142399 0.73950016 0.6227892
0.43089831 0.73870522 0.62135786
0.36719134 0.74024475 0.62311989
0.36786121 0.74022669 0.62308741
0.36886603 0.74019957 0.62303859
0.36987084 0.74017245 0.62298977
0.37087563 0.74014533 0.62294096
0.36782658 0.74013823 0.62242323
0.36883137 0.74011111 0.62237442
0.36983618 0.74008399 0.6223256
0.37050605 0.74006599 0.62229306
0.40349707 0.7419163 0.63358617
0.40416923 0.74189812 0.6335535
0.43374518 0.74110043 0.63211721
0.43441734 0.74108231 0.63208461
0.40144578 0.74188191 0.6330176
0.40245402 0.74185467 0.63296866
0.40346232 0.74182755 0.63291967
0.43371043 0.74101168 0.63145077
0.43438259 0.74099356 0.63141817
0.35734844 0.74289185 0.6338228
0.39734319 0.74181318 0.63188058
0.39835143 0.741786 0.63183165
0.3993597 0.74175882 0.63178271
0.4004916 0.74175817 0.63195044
0.40139362 0.74174881 0.63201791
0.40229568 0.74173939 0.6320855
0.43365827 0.74087858 0.63045114
0.35563323 0.74284846 0.63323796
0.35731369 0.7428031 0.6331563
0.35899416 0.7427578 0.6330747
0.39529189 0.74177879 0.63131207
0.39630014 0.74175167 0.63126314
0.39730841 0.74172443 0.63121414
0.39831668 0.74169725 0.63116521
0.39932495 0.74167007 0.63111627
0.40033323 0.74164283 0.63106728
0.40134153 0.74161565 0.63101834
0.43327007 0.74075449 0.62946784
0.35522765 0.74268001 0.63192141
0.3562533 0.74269724 0.63220567
0.35726157 0.74267 0.63215673
0.35826981 0.74264282 0.63210768
0.35927811 0.74261564 0.63205874
0.36028636 0.7425884 0.6320098
0.36129466 0.74256122 0.63196081
0.3623029 0.74253404 0.63191187
0.36331117 0.74250686 0.63186288
0.36431944 0.74247968 0.63181394
0.36532772 0.74245244 0.63176501
0.36633599 0.74242526 0.63171601
0.36734426 0.74239802 0.63166708
0.36835253 0.7423709 0.63161814
0.36900735 0.74230838 0.63125223
0.39455017 0.74161947 0.6300118
0.39523974 0.74164569 0.63031238
0.39624801 0.74161851 0.63026345
0.39725628 0.74159133 0.63021451
0.39828193 0.7416085 0.63049877
0.43321794 0.74062139 0.62846816
0.3541846 0.7426185 0.63130391
0.3551929 0.74259126 0.63125497
0.35620114 0.74256408 0.63120598
0.35720941 0.7425369 0.63115704
0.35821769 0.74250972 0.63110811
0.35922596 0.74248248 0.63105911
0.36023423 0.7424553 0.63101012
0.3612425 0.74242812 0.63096112
0.36225078 0.74240088 0.63091218
0.36325905 0.74237376 0.63086325
0.36426732 0.74234653 0.63081425
0.36527556 0.74231929 0.63076532
0.36628383 0.74229217 0.63071638
0.36830041 0.74223781 0.63061845
0.36930868 0.74221057 0.63056946
0.37031695 0.74218333 0.63052052
0.37132522 0.74215621 0.63047153
0.37703872 0.74200207 0.63019407
0.37804702 0.74197483 0.63014513
0.37905529 0.74194771 0.6300962
0.38006356 0.74192047 0.6300472
0.38107184 0.74189329 0.62999827
0.38208011 0.74186611 0.62994927
0.38308835 0.74183887 0.62990028
0.38376054 0.74182081 0.62986761
0.39249888 0.74158508 0.62944335
0.39317107 0.74156696 0.62941068
0.39417934 0.74153978 0.62936169
0.39518762 0.74151254 0.62931275
0.39585978 0.74149442 0.62928009
0.43316579 0.74048823 0.62746847
0.35413247 0.74248534 0.63030422
0.35514075 0.74245811 0.63025528
0.35614902 0.74243098 0.63020635
0.35715729 0.74240375 0.63015735
0.35816556 0.74237657 0.63010842
0.35917383 0.74234939 0.63005948
0.36018211 0.74232215 0.63001049
0.36119038 0.74229503 0.62996149
0.36219862 0.74226779 0.6299125
0.36288819 0.74229401 0.63021308
0.37162656 0.7420584 0.62978882
0.37229872 0.74204022 0.62975615
0.37330699 0.74201298 0.62970716
0.37431526 0.74198586 0.62965816
0.37532353 0.74195862 0.62960923
0.37633178 0.7419315 0.62956029
0.37700397 0.74191332 0.62952763
0.37767616 0.7418952 0.62949502
0.38238144 0.7417683 0.62926656
0.3830536 0.74175012 0.6292339
0.38416231 0.74169034 0.62895727
0.38505277 0.74165136 0.62880272
0.3859432 0.74161243 0.6286481
0.38705194 0.74155265 0.62837154
0.3877241 0.74153447 0.62833893
0.39041284 0.74146199 0.62820834
0.39108503 0.74144381 0.62817574
0.39211068 0.74146104 0.62845999
0.39311892 0.74143386 0.62841105
0.39412719 0.74140668 0.62836206
0.39513546 0.74137944 0.62831306
0.43311366 0.74035513 0.62646878
0.43948197 0.74013859 0.62582552
0.44015417 0.74012041 0.62579286
0.44117984 0.74013758 0.62607706
0.44218808 0.7401104 0.62602812
0.44319639 0.74008322 0.62597919
0.44420463 0.74005604 0.62593019
0.44487682 0.74003792 0.62589759
0.44553161 0.73997539 0.62553173
0.35508862 0.74232501 0.62925559
0.35609689 0.74229777 0.62920666
0.35710514 0.74227065 0.62915772
0.35811341 0.74224341 0.62910873
0.35912168 0.74221629 0.62905979
0.36012998 0.74218905 0.6290108
0.36113822 0.74216181 0.62896186
0.3621465 0.74213469 0.62891287
0.38600889 0.74149108 0.62775409
0.38701719 0.7414639 0.6277051
0.38802543 0.74143666 0.62765616
0.38903373 0.74140954 0.62760717
0.39004198 0.7413823 0.62755823
0.39105025 0.74135506 0.6275093
0.39205852 0.74132794 0.6274603
0.39306679 0.7413007 0.62741137
0.39407507 0.74127358 0.62736243
0.39508334 0.74124634 0.62731344
0.3957555 0.74122822 0.62728083
0.43306151 0.74022204 0.62546915
0.43911117 0.74005884 0.62517542
0.44011942 0.74003166 0.62512642
0.44079161 0.74001354 0.62509382
0.4441525 0.73992288 0.62493056
0.44482467 0.73990476 0.6248979
0.44549686 0.73988664 0.62486529
0.35503647 0.74219191 0.62825596
0.35604474 0.74216467 0.62820697
0.35705301 0.74213755 0.62815803
0.35806128 0.74211031 0.6281091
0.35906956 0.74208313 0.6280601
0.36007783 0.74205595 0.62801117
0.3610861 0.74202871 0.62796217
0.36209434 0.74200153 0.62791324
0.38631025 0.74139321 0.62707132
0.38696504 0.7413308 0.62670541
0.38797331 0.74130356 0.62665647
0.38898158 0.74127632 0.62660754
0.38998985 0.7412492 0.62655854
0.39099813 0.74122196 0.62650961
0.3920064 0.74119478 0.62646067
0.39301464 0.7411676 0.62641168
0.39402291 0.74114037 0.62636274
0.39503121 0.74111319 0.62631375
0.39592165 0.74107426 0.62615919
0.43201849 0.74016052 0.62485164
0.43267331 0.740098 0.62448579
0.43916523 0.73990792 0.6240592
0.44006729 0.73989856 0.62412673
0.44109294 0.73991573 0.62441105
0.44210121 0.73988855 0.62436205
0.44410035 0.73978972 0.62393087
0.44477254 0.73977166 0.62389821
0.44578081 0.73974442 0.62384927
0.47399503 0.73893863 0.62214512
0.47500327 0.73891145 0.62209618
0.47601154 0.73888427 0.62204719
0.35498434 0.74205875 0.62725633
0.35599262 0.74203157 0.62720734
0.35700089 0.74200439 0.62715834
0.35800916 0.74197721 0.62710941
0.35901743 0.74194998 0.62706041
0.3600257 0.7419228 0.62701148
0.36103395 0.74189562 0.62696254
0.36204225 0.74186844 0.62691355
0.38792118 0.74117047 0.62565684
0.38892946 0.74114323 0.62560791
0.3899377 0.74111605 0.62555891
0.39094597 0.74108887 0.62550992
0.39195424 0.74106169 0.62546098
0.39296252 0.74103445 0.62541199
0.39397079 0.74100727 0.62536305
0.39497909 0.74098009 0.62531412
0.39598733 0.74095291 0.62526512
0.3969956 0.74092573 0.62521619
0.3976678 0.74090755 0.62518352
0.43262115 0.73996484 0.62348616
0.43900689 0.73979259 0.62317604
0.44001517 0.73976547 0.6231271
0.44472039 0.73963851 0.62289864
0.44572866 0.73961133 0.62284964
0.47396025 0.73884988 0.62147868
0.47496852 0.7388227 0.62142968
0.47597679 0.73879552 0.62138075
0.47698507 0.73876828 0.62133181
0.35493219 0.74192566 0.62625664
0.35594049 0.74189848 0.62620771
0.35694873 0.7418713 0.62615871
0.35795701 0.74184406 0.62610972
0.35896528 0.74181688 0.62606078
0.35997355 0.7417897 0.62601179
0.36098182 0.74176246 0.62596285
0.36199012 0.74173534 0.62591386
0.36299837 0.7417081 0.62586492
0.36398926 0.74163651 0.62548274
0.38786903 0.74103731 0.62465721
0.3888773 0.74101013 0.62460822
0.38988557 0.74098295 0.62455928
0.39087647 0.74091136 0.6241771
0.39191949 0.74097288 0.62479454
0.39292777 0.74094576 0.62474555
0.39391866 0.74087411 0.62436336
0.39492694 0.74084699 0.62431443
0.39593521 0.74081975 0.62426549
0.39694348 0.74079257 0.6242165
0.39795175 0.74076539 0.62416756
0.39894262 0.74069381 0.62378538
0.43256903 0.73983175 0.62248647
0.43794644 0.73968673 0.62222534
0.43895474 0.73965949 0.62217635
0.43994564 0.7395879 0.62179416
0.44468564 0.73954976 0.6222322
0.44569391 0.73952258 0.6221832
0.47358939 0.73877025 0.62082851
0.35488006 0.74179256 0.62525696
0.35588834 0.74176532 0.62520802
0.35689661 0.74173814 0.62515908
0.35790488 0.74171096 0.62511009
0.35891315 0.74168372 0.62506109
0.35992143 0.7416566 0.62501216
0.36092967 0.74162936 0.62496316
0.36193797 0.74160212 0.62491423
0.36294624 0.741575 0.62486523
0.36395451 0.74154776 0.6248163
0.36496279 0.74152058 0.62476736
0.38781691 0.74090421 0.62365752
0.38882518 0.74087697 0.62360859
0.38949734 0.74085885 0.62357593
0.39823571 0.74062318 0.62315154
0.39890787 0.74060506 0.62311894
0.39958006 0.74058694 0.62308627
0.43184471 0.73971671 0.62151945
0.35484532 0.74170381 0.62459052
0.35585359 0.74167657 0.62454158
0.35686186 0.74164939 0.62449265
0.35787013 0.74162221 0.62444365
0.35887837 0.74159497 0.62439471
0.35988668 0.74156785 0.62434572
0.36055884 0.74154967 0.62431306
0.36291149 0.74148625 0.62419879
0.36391973 0.74145901 0.62414986
0.36492801 0.74143189 0.62410092
0.36593628 0.74140465 0.62405193
0.38946259 0.7407701 0.62290949
0.354911 0.74158239 0.62369651
0.35580143 0.74154347 0.62354189
0.35680971 0.74151623 0.62349296
0.35781801 0.74148911 0.62344396
0.35882625 0.74146187 0.62339503
0.35983452 0.74143463 0.62334609
0.36082542 0.74136311 0.62296391
0.36386761 0.74132591 0.62315017
0.36487588 0.74129868 0.62310123
0.36588416 0.74127156 0.6230523
0.36655632 0.74125338 0.62301964
0.35507712 0.74142849 0.62257487
0.35574931 0.74141037 0.6225422
0.35675758 0.74138314 0.62249327
0.35776585 0.74135596 0.62244433
0.35877413 0.74132878 0.62239534
0.3597824 0.74130154 0.6223464
0.365832 0.7411384 0.62205261
0.36684027 0.74111122 0.62200367
0.43537748 0.74209899 0.63228685
0.35942757 0.74396747 0.63463426
0.3604393 0.74394017 0.63458514
0.36145103 0.74391288 0.63453597
0.39686179 0.74295783 0.63281637
0.39922249 0.74289417 0.63270175
0.40023422 0.74286687 0.63265258
0.40092617 0.74289316 0.63295418
0.40229258 0.74290133 0.63322306
0.40296707 0.74288315 0.63319033
0.43532515 0.74196541 0.63128382
0.4360171 0.74199176 0.63158536
0.45018137 0.74160975 0.63089752
0.45220485 0.74155521 0.63079923
0.35736921 0.74393296 0.63406372
0.35838094 0.74390572 0.63401461
0.3593927 0.74387836 0.63396549
0.36040443 0.74385113 0.63391638
0.36141616 0.74382389 0.63386726
0.39547792 0.74290514 0.63221318
0.39648965 0.74287784 0.632164
0.39750138 0.7428506 0.63211489
0.3981759 0.74283242 0.63208216
0.39918762 0.74280506 0.63203299
0.40019935 0.74277782 0.63198388
0.43459836 0.74185008 0.6303134
0.43527284 0.74183184 0.63028061
0.35325253 0.743864 0.63292283
0.35426426 0.74383676 0.63287365
0.35529345 0.74385399 0.63315892
0.35630518 0.74382669 0.63310981
0.35832864 0.74377215 0.63301152
0.35945863 0.74375665 0.63306844
0.3603521 0.74371755 0.63291329
0.36136386 0.74369025 0.63286412
0.36237559 0.74366295 0.632815
0.36336988 0.74359113 0.63243151
0.36438161 0.74356389 0.63238239
0.36551741 0.74356323 0.63255072
0.36642253 0.74355382 0.63261849
0.3674168 0.74348199 0.63223499
0.36842859 0.74345469 0.63218588
0.39439645 0.74275434 0.63092482
0.39544305 0.74281615 0.63154441
0.39645478 0.74278879 0.6314953
0.43454602 0.7417165 0.62931031
0.44329697 0.74143547 0.62855017
0.35422939 0.74374765 0.63220501
0.35524112 0.74372041 0.63215584
0.36906821 0.74334747 0.63148433
0.3805345 0.74303824 0.63092756
0.38120899 0.74302 0.63089478
0.3818835 0.74300182 0.63086206
0.38323247 0.74296546 0.63079655
0.38390696 0.74294722 0.63076383
0.39436156 0.74266529 0.63025606
0.43449369 0.74158287 0.62830722
0.35419452 0.7436586 0.63153625
0.36970779 0.74324024 0.6307829
0.37038228 0.74322206 0.63075012
0.37105677 0.74320388 0.6307174
0.37237087 0.74307835 0.62998313
0.37304538 0.74306023 0.6299504
0.37405711 0.74303293 0.62990129
0.37506884 0.74300569 0.62985212
0.37608057 0.74297833 0.629803
0.37847617 0.74300373 0.63035709
0.37915066 0.74298555 0.6303243
0.38016239 0.74295825 0.63027519
0.38117412 0.74293095 0.63022608
0.38218585 0.74290365 0.63017696
0.38319758 0.74287641 0.63012779
0.38431013 0.74281639 0.62985033
0.38520363 0.74277729 0.62969518
0.38619789 0.74270546 0.62931168
0.39024487 0.74259633 0.62911516
0.3912566 0.74256903 0.62906599
0.39217916 0.7426042 0.62946814
0.39331496 0.74260348 0.62963647
0.39398944 0.7425853 0.62960374
0.43444142 0.7414493 0.62730414
0.44049439 0.74124104 0.62667501
0.44118634 0.74126738 0.62697661
0.44219807 0.74124014 0.62692744
0.44320977 0.74121279 0.62687832
0.44422153 0.74118555 0.62682915
0.44523326 0.74115825 0.62678003
0.44612676 0.74111915 0.62662494
0.38650027 0.74260736 0.62862659
0.38717479 0.74258918 0.6285938
0.38818651 0.74256182 0.62854469
0.38919824 0.74253458 0.62849551
0.39020997 0.74250728 0.6284464
0.39122173 0.74247998 0.62839735
0.43438908 0.74131572 0.62630105
0.44012228 0.74116105 0.62602258
0.44619268 0.74099737 0.62572783
0.44720441 0.74097008 0.62567866
0.38848889 0.74246365 0.62785959
0.38916337 0.74244553 0.62782687
0.38983789 0.74242735 0.62779403
0.43433678 0.74118215 0.62529796
0.43501127 0.74116397 0.62526512
0.43566829 0.74110121 0.62489808
0.43701732 0.74106485 0.62483251
0.43815309 0.74106425 0.62500083
0.43907565 0.74109936 0.62540299
0.44647762 0.74085468 0.62470835
0.44715211 0.7408365 0.62467557
0.47343978 0.7400825 0.6230638
0.4741317 0.74010879 0.6233654
0.47478878 0.74004608 0.6229983
0.47581792 0.74006337 0.62328357
0.47681221 0.73999155 0.62290007
0.43394721 0.74105769 0.62431121
0.43799418 0.7409485 0.62411469
0.43900591 0.7409212 0.62406558
0.44709978 0.74070293 0.62367249
0.47306764 0.74000257 0.62241149
0.47407937 0.73997527 0.62236232
0.47475389 0.73995703 0.62232959
0.47576565 0.7399298 0.62228048
0.47677734 0.7399025 0.6222313
0.47745186 0.73988426 0.62219858
0.4338949 0.74092406 0.62330812
0.43794185 0.74081498 0.62311155
0.44704747 0.74056935 0.6226694
0.47131166 0.73986995 0.62115586
0.47200361 0.73989624 0.62145746
0.47301534 0.73986894 0.62140834
0.477855 0.73975343 0.62128508
0.4787311 0.7396698 0.62079561
0.39101246 0.74194568 0.62438488
0.43384257 0.74079049 0.62230504
0.43620333 0.74072683 0.62219036
0.43687779 0.74070865 0.62215757
0.4375523 0.74069047 0.62212485
0.44699514 0.74043578 0.62166631
0.47195128 0.73976272 0.62045437
0.47296301 0.73973536 0.62040526
0.39026821 0.74178571 0.62308013
0.39094269 0.74176753 0.62304741
0.39197189 0.74178481 0.62333268
0.39298362 0.74175751 0.62328357
0.39397794 0.74168569 0.62290007
0.39498967 0.74165839 0.62285089
0.3960014 0.74163115 0.62280178
0.39701313 0.74160379 0.62275261
0.39768761 0.74158561 0.62271988
0.4327611 0.74063969 0.62101668
0.4338077 0.74070144 0.62163627
0.43616843 0.74063778 0.62152165
0.43684292 0.7406196 0.62148887
0.43751743 0.74060142 0.62145615
0.36123025 0.74247891 0.62381983
0.36190477 0.74246073 0.62378711
0.39428031 0.74158752 0.62221491
0.3949548 0.74156934 0.62218219
0.39596653 0.7415421 0.62213302
0.39697826 0.74151474 0.6220839
0.36085814 0.74239898 0.62316751
0.36186987 0.74237168 0.6231184
0.3628816 0.74234444 0.62306929
0.3607884 0.74222082 0.62183005
0.36181754 0.7422381 0.62211525
0.3628293 0.74221081 0.62206614
0.36382359 0.74213898 0.62168264
0.36483532 0.74211168 0.62163353
0.36668482 0.74603868 0.63613421
0.36253622 0.74501652 0.63540488
0.36321303 0.74499822 0.63537198
0.36732882 0.74593067 0.63542795
0.36182442 0.74494541 0.6347667
0.36250123 0.74492711 0.63473392
0.36364368 0.74524403 0.63476288
0.36455444 0.74539334 0.63476092
0.36557138 0.74536592 0.6347115
0.36658832 0.7453385 0.63466215
0.3676157 0.74578708 0.63440144
0.39938682 0.74393225 0.63294268
0.40040204 0.74390489 0.63289332
0.40175563 0.74386841 0.63282764
0.43728766 0.74291009 0.63110214
0.43830284 0.74288273 0.63105279
0.43931803 0.74285531 0.63100356
0.44033325 0.74282795 0.63095427
0.44134846 0.74280053 0.63090491
0.44236365 0.74277318 0.63085562
0.44337887 0.74274576 0.63080639
0.44439405 0.7427184 0.63075703
0.44507083 0.74270016 0.63072413
0.45319244 0.74248111 0.63032979
0.45420763 0.74245375 0.63028044
0.45522285 0.74242634 0.63023114
0.45589966 0.7424081 0.6301983
0.45724067 0.74332446 0.62971163
0.45825931 0.74329698 0.62966216
0.45927799 0.74326956 0.62961268
0.46097577 0.74322379 0.62953025
0.46742731 0.74304974 0.62921697
0.46844599 0.74302226 0.6291675
0.46946463 0.74299484 0.62911803
0.4704833 0.74296731 0.62906855
0.47116241 0.74294901 0.62903559
0.47184154 0.74293065 0.62900263
0.47319975 0.74289405 0.62893659
0.48949841 0.74245447 0.62814516
0.49019504 0.74248099 0.62844884
0.49132106 0.74243551 0.62828165
0.49223238 0.74242604 0.6283499
0.49325103 0.74239856 0.62830043
0.4942697 0.74237108 0.62825096
0.49528837 0.7423436 0.62820148
0.49630705 0.74231613 0.62815207
0.49732572 0.74228865 0.6281026
0.49832681 0.74221635 0.62771642
0.49900591 0.74219805 0.62768346
0.36244875 0.74479306 0.63372731
0.36346394 0.7447657 0.63367808
0.36447912 0.74473834 0.63362873
0.36549434 0.74471092 0.63357943
0.36650956 0.74468356 0.63353014
0.36753023 0.74489409 0.63337457
0.36858168 0.74562508 0.63334197
0.38239685 0.74420995 0.63242227
0.38341203 0.74418259 0.63237292
0.38442725 0.74415511 0.63232368
0.38544244 0.74412775 0.63227439
0.39356405 0.74390876 0.63187993
0.39424086 0.74389046 0.63184708
0.39516658 0.74392569 0.63225061
0.39630628 0.74392509 0.63241953
0.39765987 0.74388856 0.63235378
0.39833665 0.74387032 0.63232094
0.43621996 0.74280339 0.63014489
0.43723515 0.74277604 0.6300956
0.43825033 0.74274862 0.63004625
0.43926555 0.74272126 0.62999696
0.44028074 0.7426939 0.62994772
0.44129595 0.74266654 0.62989837
0.44231114 0.74263912 0.62984908
0.44332635 0.74261177 0.62979978
0.44434154 0.74258441 0.62975049
0.44535676 0.74255699 0.6297012
0.44637194 0.74252963 0.6296519
0.44738716 0.74250227 0.62960261
0.44840235 0.74247479 0.62955326
0.44906166 0.74241191 0.6291849
0.45043278 0.74242008 0.62945473
0.45144796 0.74239266 0.62940538
0.45246315 0.7423653 0.62935609
0.45313999 0.74234706 0.62932324
0.45415518 0.74231964 0.62927395
0.45517036 0.74229228 0.62922466
0.45586464 0.74231875 0.62952727
0.45720553 0.74323487 0.62903833
0.45822421 0.74320734 0.62898886
0.45924285 0.74317986 0.62893939
0.46026155 0.74315238 0.62888992
0.4612802 0.7431249 0.62884051
0.46229884 0.74309748 0.62879097
0.46331754 0.74307001 0.6287415
0.46433622 0.74304253 0.62869203
0.46739221 0.7429601 0.62854367
0.46841085 0.74293262 0.6284942
0.46942952 0.74290514 0.62844467
0.4704482 0.74287766 0.62839526
0.4711273 0.74285936 0.6283623
0.47180641 0.74284101 0.62832928
0.48810503 0.74240142 0.62753779
0.48912373 0.74237394 0.62748832
0.49014238 0.74234653 0.62743884
0.49116102 0.74231905 0.62738937
0.49217972 0.74229157 0.62733996
0.49319836 0.74226403 0.62729049
0.49421704 0.74223655 0.62724102
0.49523568 0.74220914 0.62719148
0.49625435 0.74218166 0.62714201
0.49727303 0.74215418 0.6270926
0.4982917 0.7421267 0.62704313
0.49931034 0.74209923 0.62699366
0.36341146 0.74463171 0.63267148
0.36442667 0.74460429 0.63262224
0.36510345 0.74458605 0.63258934
0.36747226 0.74452209 0.6324743
0.36851701 0.74501508 0.63254684
0.36919495 0.74499679 0.63251394
0.37020922 0.74539995 0.63191295
0.38041344 0.74517006 0.63175493
0.38139814 0.74466765 0.63192135
0.38236183 0.74412054 0.63175124
0.38337708 0.74409318 0.63170195
0.38439226 0.74406582 0.63165265
0.38540745 0.74403846 0.6316033
0.38614383 0.74453968 0.63169092
0.38720456 0.74498689 0.63142514
0.3882232 0.74495947 0.63137567
0.38922432 0.74488711 0.63098955
0.39024299 0.74485964 0.63094008
0.39138654 0.74485898 0.63110954
0.39229786 0.7448495 0.63117778
0.3931253 0.7441777 0.63131076
0.39420587 0.74380106 0.63117605
0.39488265 0.74378288 0.63114321
0.43549067 0.74268758 0.62917119
0.43616745 0.7426694 0.62913835
0.43718266 0.74264205 0.62908906
0.43819785 0.74261457 0.62903976
0.43921307 0.74258721 0.62899047
0.44022828 0.74255985 0.62894118
0.44124347 0.74253243 0.62889189
0.44225866 0.74250507 0.62884259
0.44327384 0.74247772 0.62879324
0.44428906 0.7424503 0.62874395
0.44530424 0.74242294 0.62869471
0.44631946 0.74239558 0.62864536
0.44733465 0.74236816 0.62859607
0.44834983 0.7423408 0.62854677
0.44936505 0.74231344 0.62849742
0.45038027 0.74228609 0.62844819
0.45139545 0.74225867 0.6283989
0.45241064 0.74223131 0.62834954
0.45308748 0.74221301 0.6283167
0.45410267 0.74218565 0.62826741
0.45511788 0.74215829 0.62821811
0.4561342 0.74312782 0.62807781
0.45715287 0.74310035 0.62802839
0.45817155 0.74307281 0.62797892
0.45919022 0.74304539 0.62792945
0.46020886 0.74301791 0.62787992
0.46122751 0.74299043 0.62783045
0.46224621 0.74296296 0.62778103
0.46326485 0.74293554 0.62773156
0.46428353 0.742908 0.62768209
0.46530217 0.74288052 0.62763262
0.46632087 0.74285305 0.62758315
0.46733952 0.74282557 0.62753367
0.46835816 0.74279815 0.6274842
0.46937683 0.74277067 0.62743473
0.47039551 0.74274313 0.62738526
0.47107461 0.74272484 0.6273523
0.47209328 0.74269736 0.62730283
0.47311196 0.74266988 0.62725335
0.47413063 0.7426424 0.62720394
0.47513172 0.7425701 0.62681782
0.47784817 0.74249685 0.6266858
0.48531836 0.74229538 0.6263231
0.48739082 0.74233007 0.62689745
0.4880524 0.74226695 0.62652785
0.48907104 0.74223948 0.62647837
0.49008968 0.742212 0.6264289
0.49110836 0.74218452 0.62637943
0.49212703 0.74215704 0.62633002
0.4931457 0.74212956 0.62628049
0.49416435 0.74210209 0.62623101
0.49518305 0.74207461 0.62618154
0.49620169 0.74204719 0.62613207
0.49722034 0.74201971 0.62608266
0.49823901 0.74199218 0.62603319
0.49925768 0.7419647 0.62598372
0.50027639 0.74193722 0.62593418
0.36956879 0.74434519 0.63147551
0.37048078 0.7447812 0.63110375
0.37115872 0.7447629 0.63107079
0.37861621 0.74456179 0.63070869
0.37929419 0.74454355 0.63067573
0.38019302 0.74437577 0.63081598
0.38131166 0.74405855 0.6311295
0.38242799 0.74399841 0.63085103
0.38334206 0.74400383 0.63103092
0.38445839 0.74394363 0.6307525
0.38535497 0.74390435 0.63059682
0.38637015 0.74387699 0.63054746
0.38738537 0.74384964 0.63049817
0.38817051 0.74482489 0.63036573
0.38918921 0.74479741 0.63031626
0.39047986 0.74424183 0.63013256
0.39129391 0.74439353 0.63013333
0.39212298 0.74372184 0.63026816
0.39313817 0.74369448 0.6302188
0.43543816 0.74255359 0.62816471
0.43611497 0.74253535 0.62813187
0.43713015 0.74250793 0.62808251
0.43814537 0.74248058 0.62803322
0.43916059 0.74245322 0.62798393
0.44017577 0.7424258 0.62793463
0.44119096 0.74239844 0.62788534
0.44220614 0.74237108 0.62783605
0.44310272 0.7423318 0.62768036
0.44423658 0.74231631 0.6277374
0.44525176 0.74228889 0.62768811
0.44626695 0.74226153 0.62763888
0.4472822 0.74223411 0.62758952
0.44829738 0.74220675 0.62754023
0.44931257 0.74217939 0.62749094
0.45032775 0.74215198 0.62744159
0.45134297 0.74212462 0.62739235
0.45235816 0.74209726 0.62734306
0.45303497 0.74207896 0.62731016
0.45405018 0.7420516 0.62726086
0.45506537 0.74202424 0.62721157
0.45608151 0.7429933 0.62706786
0.45710018 0.74296582 0.62701839
0.45811889 0.74293834 0.62696892
0.45913753 0.74291086 0.62691945
0.46015617 0.74288344 0.62686998
0.46117488 0.74285597 0.6268205
0.46219352 0.74282849 0.62677103
0.46321219 0.74280095 0.62672162
0.46423087 0.74277347 0.62667215
0.46524951 0.74274606 0.62662262
0.46626818 0.74271858 0.62657315
0.46728683 0.7426911 0.62652367
0.46830553 0.74266362 0.62647426
0.46932417 0.74263614 0.62642479
0.47034284 0.74260867 0.62637532
0.47102195 0.74259037 0.62634236
0.47204059 0.74256289 0.62629288
0.4730593 0.74253541 0.62624341
0.47407794 0.74250793 0.62619394
0.47509658 0.74248046 0.62614447
0.47611529 0.74245304 0.626095
0.47713393 0.7424255 0.62604553
0.4781526 0.74239802 0.62599605
0.47917128 0.74237055 0.62594658
0.48018995 0.74234307 0.62589717
0.4866415 0.74216908 0.62558383
0.4873206 0.74215078 0.62555087
0.48799971 0.74213248 0.62551785
0.48901835 0.74210501 0.62546843
0.49003702 0.74207747 0.62541896
0.4910557 0.74204999 0.62536949
0.49207437 0.74202251 0.62531996
0.49309301 0.7419951 0.62527055
0.49411169 0.74196762 0.62522107
0.49513036 0.74194014 0.6251716
0.496149 0.7419126 0.62512213
0.49716771 0.74188519 0.62507266
0.49818638 0.74185771 0.62502325
0.49920499 0.74183023 0.62497371
0.5002237 0.74180275 0.62492424
0.50090277 0.74178445 0.62489128
0.37214059 0.74464601 0.63034928
0.37315753 0.74461859 0.63029987
0.37413526 0.74407154 0.63013256
0.37519139 0.7445637 0.6302011
0.37620831 0.74453628 0.63015169
0.37722525 0.74450886 0.63010234
0.37790322 0.74449056 0.63006943
0.38631767 0.74374294 0.62954098
0.38733289 0.74371558 0.62949163
0.38827717 0.74403715 0.62952572
0.38922381 0.74435884 0.62955964
0.39030987 0.74398237 0.62942702
0.39139369 0.74360603 0.62929446
0.43538567 0.74241954 0.62715816
0.43606246 0.74240124 0.62712526
0.4370777 0.74237388 0.62707603
0.43809289 0.74234653 0.62702668
0.43910807 0.74231917 0.62697738
0.44012326 0.74229175 0.62692809
0.44080007 0.74227357 0.62689525
0.44722968 0.74210012 0.62658304
0.44824487 0.74207276 0.62653369
0.44926006 0.74204534 0.62648439
0.45027527 0.74201798 0.6264351
0.45095208 0.74199975 0.62640226
0.4522762 0.74291468 0.62590265
0.45329487 0.7428872 0.62585312
0.45415503 0.74238867 0.62602901
0.45533219 0.7428323 0.62575424
0.45602885 0.74285877 0.62605786
0.45704752 0.74283135 0.62600839
0.4580662 0.74280387 0.62595898
0.45908484 0.74277639 0.62590951
0.46010351 0.74274892 0.62586004
0.46112218 0.74272144 0.62581056
0.46224645 0.74235916 0.62578857
0.46316287 0.74236459 0.62596905
0.4641782 0.74263901 0.62566215
0.46519685 0.74261153 0.62561268
0.46621549 0.74258411 0.6255632
0.46723416 0.74255663 0.62551373
0.46825284 0.74252915 0.62546432
0.46927151 0.74250162 0.62541479
0.47029015 0.74247414 0.62536532
0.47096929 0.74245584 0.62533236
0.47198796 0.74242836 0.62528288
0.47300661 0.74240094 0.62523341
0.47402525 0.74237347 0.62518394
0.47504395 0.74234593 0.62513447
0.4760626 0.74231845 0.62508506
0.47708127 0.74229097 0.62503558
0.47809994 0.74226356 0.62498611
0.47911862 0.74223608 0.62493658
0.48013726 0.7422086 0.62488711
0.48115593 0.74218112 0.6248377
0.48217458 0.74215358 0.62478822
0.48319325 0.74212617 0.62473875
0.48421192 0.74209869 0.62468928
0.48523057 0.74207121 0.62463981
0.48624927 0.74204373 0.62459034
0.48726791 0.74201632 0.62454087
0.48794702 0.74199796 0.6245079
0.48896569 0.74197054 0.62445843
0.48998436 0.741943 0.62440896
0.49100301 0.74191552 0.62435949
0.49202168 0.74188805 0.62431002
0.49304035 0.74186057 0.62426054
0.49405903 0.74183315 0.62421113
0.49507767 0.74180567 0.62416166
0.49609631 0.74177814 0.62411213
0.49711502 0.74175066 0.62406266
0.49813369 0.74172318 0.62401319
0.49915233 0.74169576 0.62396377
0.50017101 0.74166828 0.6239143
0.50118965 0.74164081 0.62386483
0.50220835 0.74161327 0.62381536
0.50320947 0.74154103 0.62342918
0.50422812 0.74151355 0.62337977
0.50626546 0.74145854 0.62328082
0.50762367 0.74142194 0.62321484
0.51237738 0.74129379 0.62298399
0.51441473 0.74123877 0.62288511
0.51623744 0.74121988 0.6230216
0.51714873 0.74121034 0.62308985
0.38729787 0.74362624 0.62882066
0.38831306 0.74359888 0.62877136
0.38932827 0.74357146 0.62872201
0.43533316 0.74228555 0.62615162
0.43600997 0.74226725 0.62611872
0.43702519 0.74223989 0.62606943
0.43804038 0.74221253 0.62602019
0.43905556 0.74218512 0.62597084
0.4400883 0.74220246 0.62625706
0.44753307 0.74200165 0.62589556
0.44819239 0.74193871 0.6255272
0.44920757 0.74191129 0.62547785
0.45022279 0.74188393 0.62542856
0.4508996 0.74186563 0.62539572
0.45224109 0.74282509 0.6252293
0.45325974 0.74279761 0.62517983
0.45393884 0.74277925 0.62514681
0.45495752 0.74275178 0.62509739
0.45613635 0.74219966 0.62492257
0.45698768 0.74235016 0.62492043
0.45808807 0.74190938 0.62493724
0.45902118 0.74164665 0.62500131
0.4600364 0.74161929 0.62495202
0.46105158 0.74159187 0.62490273
0.46206677 0.74156451 0.62485343
0.46308199 0.74153715 0.62480408
0.46409717 0.74150974 0.62475479
0.46528932 0.74195278 0.6244781
0.46612766 0.74175668 0.62439823
0.46716279 0.74207568 0.62442631
0.46824872 0.74163532 0.62444377
0.46917319 0.74137282 0.62450826
0.47018838 0.74134541 0.62445903
0.4712036 0.74131805 0.62440974
0.47188038 0.74129981 0.62437683
0.47289556 0.74127239 0.6243276
0.47391081 0.74124503 0.62427825
0.47492599 0.74121767 0.62422895
0.47594118 0.74119025 0.62417966
0.47695637 0.7411629 0.62413031
0.47817045 0.74160534 0.62385261
0.47900149 0.74140948 0.62377304
0.48005125 0.74172813 0.62380046
0.48110327 0.74204659 0.6238277
0.48212191 0.74201912 0.62377828
0.48314059 0.74199164 0.62372881
0.48415923 0.74196422 0.62367928
0.4851779 0.74193674 0.62362981
0.48619658 0.74190927 0.62358034
0.48721525 0.74188179 0.62353092
0.48789436 0.74186343 0.6234979
0.48891303 0.74183595 0.62344843
0.48993167 0.74180847 0.62339902
0.49095035 0.74178106 0.62334955
0.49196902 0.74175358 0.62330008
0.49298769 0.7417261 0.6232506
0.49400634 0.74169856 0.62320113
0.49502501 0.74167109 0.62315166
0.49604368 0.74164367 0.62310219
0.49706236 0.74161619 0.62305272
0.49805582 0.74060893 0.62321788
0.49895239 0.74056965 0.62306219
0.50011832 0.74153382 0.62290436
0.50113702 0.74150628 0.62285483
0.50215566 0.7414788 0.62280536
0.5031743 0.74145132 0.62275589
0.50419301 0.74142385 0.62270641
0.50487208 0.74140555 0.62267345
0.50589079 0.74137807 0.62262398
0.50690943 0.74135065 0.62257451
0.50792807 0.74132317 0.6225251
0.50894678 0.74129564 0.62247562
0.50996542 0.74126816 0.62242609
0.51098412 0.74124068 0.62237662
0.51200277 0.74121326 0.62232715
0.51302141 0.74118578 0.62227774
